0.8456 0.1346 -0.2994 1.0000
0.8448 0.1393 -0.3007 1.0000
0.8447 0.1377 -0.3007 1.0000
0.8441 0.1344 -0.3005 1.0000
0.8438 0.1327 -0.3004 1.0000
0.8431 0.1294 -0.3001 1.0000
0.8430 0.1278 -0.3001 1.0000
0.8436 0.1423 -0.3019 1.0000
0.8429 0.1406 -0.3017 1.0000
0.8425 0.1341 -0.3015 1.0000
0.8423 0.1325 -0.3014 1.0000
0.8418 0.1308 -0.3013 1.0000
0.8413 0.1275 -0.3011 1.0000
0.8411 0.1259 -0.3010 1.0000
0.8406 0.1242 -0.3008 1.0000
0.8388 0.1255 -0.3018 1.0000
0.8385 0.1207 -0.3017 1.0000
0.8382 0.1191 -0.3016 1.0000
0.8415 0.1516 -0.3044 1.0000
0.8404 0.1498 -0.3040 1.0000
0.8399 0.1465 -0.3038 1.0000
0.8396 0.1416 -0.3037 1.0000
0.8391 0.1384 -0.3035 1.0000
0.8392 0.1352 -0.3035 1.0000
0.8386 0.1319 -0.3033 1.0000
0.8384 0.1302 -0.3032 1.0000
0.8368 0.1252 -0.3027 1.0000
0.8365 0.1236 -0.3026 1.0000
0.8409 0.1578 -0.3057 1.0000
0.8405 0.1562 -0.3056 1.0000
0.8401 0.1529 -0.3055 1.0000
0.8388 0.1495 -0.3050 1.0000
0.8381 0.1366 -0.3047 1.0000
0.8379 0.1350 -0.3046 1.0000
0.8367 0.1316 -0.3042 1.0000
0.8367 0.1300 -0.3042 1.0000
0.8362 0.1267 -0.3040 1.0000
0.8352 0.1202 -0.3037 1.0000
0.8353 0.1155 -0.3037 1.0000
0.8349 0.1138 -0.3036 1.0000
0.8408 0.1610 -0.3073 1.0000
0.8351 0.1313 -0.3052 1.0000
0.8347 0.1297 -0.3051 1.0000
0.8335 0.1279 -0.3046 1.0000
0.8333 0.1263 -0.3046 1.0000
0.8340 0.1216 -0.3048 1.0000
0.8337 0.1184 -0.3047 1.0000
0.8329 0.1135 -0.3044 1.0000
0.8389 0.1607 -0.3082 1.0000
0.8382 0.1573 -0.3079 1.0000
0.8378 0.1557 -0.3078 1.0000
0.8375 0.1540 -0.3077 1.0000
0.8368 0.1507 -0.3074 1.0000
0.8361 0.1474 -0.3072 1.0000
0.8358 0.1442 -0.3071 1.0000
0.8354 0.1409 -0.3069 1.0000
0.8354 0.1361 -0.3069 1.0000
0.8338 0.1311 -0.3063 1.0000
0.8311 0.1133 -0.3053 1.0000
0.8306 0.1116 -0.3052 1.0000
0.8373 0.1604 -0.3092 1.0000
0.8366 0.1570 -0.3089 1.0000
0.8362 0.1554 -0.3088 1.0000
0.8358 0.1537 -0.3087 1.0000
0.8346 0.1503 -0.3082 1.0000
0.8342 0.1471 -0.3081 1.0000
0.8339 0.1438 -0.3080 1.0000
0.8316 0.1403 -0.3071 0.0000
0.8320 0.1388 -0.3073 0.0000
0.8324 0.1372 -0.3074 1.0000
0.8318 0.1308 -0.3072 1.0000
0.8309 0.1275 -0.3068 1.0000
0.8309 0.1259 -0.3069 1.0000
0.8300 0.1195 -0.3065 1.0000
0.8310 0.1164 -0.3069 1.0000
0.8339 0.1534 -0.3095 1.0000
0.8324 0.1499 -0.3090 1.0000
0.8328 0.1468 -0.3091 1.0000
0.8312 0.1434 -0.3085 1.0000
0.8292 0.1383 -0.3078 0.0000
0.8282 0.1318 -0.3074 1.0000
0.8283 0.1271 -0.3075 1.0000
0.8282 0.1255 -0.3074 1.0000
0.8279 0.1223 -0.3073 1.0000
0.8279 0.1207 -0.3073 1.0000
0.8270 0.1190 -0.3070 1.0000
0.8261 0.1126 -0.3066 1.0000
0.8253 0.1078 -0.3064 1.0000
0.8347 0.1630 -0.3114 1.0000
0.8344 0.1614 -0.3113 1.0000
0.8337 0.1581 -0.3111 1.0000
0.8336 0.1565 -0.3110 1.0000
0.8284 0.1445 -0.3091 1.0000
0.8282 0.1350 -0.3090 0.0000
0.8272 0.1317 -0.3086 1.0000
0.8269 0.1300 -0.3085 1.0000
0.8267 0.1269 -0.3084 1.0000
0.8268 0.1237 -0.3085 1.0000
0.8267 0.1206 -0.3085 1.0000
0.8196 0.1148 -0.3058 0.0000
0.8209 0.1135 -0.3063 0.0000
0.8241 0.1092 -0.3075 1.0000
0.8205 0.1056 -0.3061 0.0000
0.8320 0.1625 -0.3120 1.0000
0.8319 0.1577 -0.3120 1.0000
0.8316 0.1545 -0.3119 1.0000
0.8314 0.1529 -0.3118 1.0000
0.8306 0.1512 -0.3115 1.0000
0.8294 0.1478 -0.3110 1.0000
0.8288 0.1461 -0.3108 1.0000
0.8270 0.1426 -0.3101 1.0000
0.8234 0.1201 -0.3088 1.0000
0.8232 0.1169 -0.3087 1.0000
0.8200 0.1133 -0.3075 0.0000
0.8195 0.1086 -0.3073 1.0000
0.8193 0.1055 -0.3073 1.0000
0.8182 0.1038 -0.3068 1.0000
0.8296 0.1652 -0.3127 0.0000
0.8302 0.1606 -0.3129 1.0000
0.8289 0.1572 -0.3124 1.0000
0.8285 0.1524 -0.3123 1.0000
0.8270 0.1474 -0.3117 1.0000
0.8263 0.1457 -0.3114 1.0000
0.8257 0.1408 -0.3112 0.0000
0.8255 0.1392 -0.3112 1.0000
0.8247 0.1360 -0.3108 2.0000
0.8245 0.1344 -0.3108 0.0000
0.8237 0.1311 -0.3105 1.0000
0.8230 0.1294 -0.3102 1.0000
0.8225 0.1278 -0.3100 1.0000
0.8219 0.1246 -0.3098 1.0000
0.8161 0.1175 -0.3076 0.0000
0.8157 0.1081 -0.3074 1.0000
0.8259 0.1472 -0.3129 1.0000
0.8248 0.1454 -0.3125 1.0000
0.8243 0.1438 -0.3123 1.0000
0.8242 0.1422 -0.3122 1.0000
0.8232 0.1388 -0.3118 1.0000
0.8226 0.1356 -0.3116 2.0000
0.8215 0.1339 -0.3112 1.0000
0.8209 0.1322 -0.3110 1.0000
0.8207 0.1291 -0.3109 1.0000
0.8200 0.1258 -0.3106 1.0000
0.8187 0.1225 -0.3101 1.0000
0.8165 0.1191 -0.3093 2.0000
0.8164 0.1129 -0.3093 0.0000
0.8138 0.1109 -0.3083 0.0000
0.8271 0.1663 -0.3149 1.0000
0.8273 0.1632 -0.3150 1.0000
0.8260 0.1582 -0.3145 1.0000
0.8244 0.1548 -0.3139 1.0000
0.8250 0.1533 -0.3141 1.0000
0.8213 0.1479 -0.3127 1.0000
0.8201 0.1383 -0.3122 1.0000
0.8190 0.1350 -0.3118 1.0000
0.8193 0.1320 -0.3119 1.0000
0.8181 0.1302 -0.3115 1.0000
0.8173 0.1239 -0.3112 1.0000
0.8165 0.1222 -0.3109 1.0000
0.8144 0.1188 -0.3101 0.0000
0.8131 0.1170 -0.3096 1.0000
0.8125 0.1154 -0.3093 0.0000
0.8132 0.1062 -0.3096 1.0000
0.8244 0.1673 -0.3155 1.0000
0.8205 0.1618 -0.3139 0.0000
0.8214 0.1573 -0.3143 0.0000
0.8224 0.1528 -0.3147 1.0000
0.8223 0.1497 -0.3146 1.0000
0.8194 0.1429 -0.3135 1.0000
0.8186 0.1396 -0.3132 1.0000
0.8177 0.1364 -0.3129 1.0000
0.8165 0.1346 -0.3124 0.0000
0.8128 0.1185 -0.3110 1.0000
0.8108 0.1121 -0.3102 1.0000
0.8108 0.1105 -0.3103 1.0000
0.8220 0.1684 -0.3161 1.0000
0.8216 0.1667 -0.3159 1.0000
0.8211 0.1635 -0.3157 0.0000
0.8202 0.1524 -0.3154 1.0000
0.8179 0.1473 -0.3145 0.0000
0.8179 0.1426 -0.3145 1.0000
0.8174 0.1394 -0.3143 1.0000
0.8153 0.1282 -0.3135 1.0000
0.8133 0.1233 -0.3127 1.0000
0.8132 0.1217 -0.3127 1.0000
0.8107 0.1182 -0.3117 1.0000
0.8177 0.1597 -0.3160 0.0000
0.8184 0.1536 -0.3163 1.0000
0.8153 0.1422 -0.3151 1.0000
0.8164 0.1377 -0.3155 1.0000
0.8139 0.1326 -0.3145 1.0000
0.8139 0.1295 -0.3145 1.0000
0.8136 0.1264 -0.3144 1.0000
0.8118 0.1215 -0.3137 1.0000
0.8111 0.1198 -0.3134 1.0000
0.8082 0.1132 -0.3123 1.0000
0.8074 0.1116 -0.3120 1.0000
0.8083 0.1102 -0.3123 1.0000
0.8193 0.1678 -0.3182 1.0000
0.8179 0.1644 -0.3176 1.0000
0.8159 0.1516 -0.3168 0.0000
0.8126 0.1494 -0.3156 1.0000
0.8156 0.1469 -0.3167 1.0000
0.8105 0.1213 -0.3147 1.0000
0.8096 0.1196 -0.3144 1.0000
0.8090 0.1180 -0.3141 1.0000
0.8084 0.1148 -0.3139 1.0000
0.8190 0.1709 -0.3196 1.0000
0.8177 0.1675 -0.3191 1.0000
0.8164 0.1657 -0.3186 1.0000
0.8134 0.1604 -0.3174 0.0000
0.8131 0.1588 -0.3173 0.0000
0.8116 0.1554 -0.3167 0.0000
0.8108 0.1522 -0.3164 0.0000
0.8119 0.1462 -0.3168 1.0000
0.8120 0.1416 -0.3169 1.0000
0.8117 0.1385 -0.3168 1.0000
0.8110 0.1337 -0.3165 1.0000
0.8109 0.1291 -0.3164 1.0000
0.8101 0.1274 -0.3161 1.0000
0.8148 0.1653 -0.3195 1.0000
0.8119 0.1601 -0.3184 0.0000
0.8105 0.1583 -0.3178 1.0000
0.8098 0.1551 -0.3176 0.0000
0.8092 0.1519 -0.3173 0.0000
0.8094 0.1504 -0.3174 0.0000
0.8097 0.1458 -0.3175 1.0000
0.8100 0.1397 -0.3176 1.0000
0.8089 0.1364 -0.3172 1.0000
0.8087 0.1333 -0.3171 1.0000
0.8085 0.1302 -0.3170 1.0000
0.8075 0.1255 -0.3167 1.0000
0.8067 0.1207 -0.3163 1.0000
0.8065 0.1192 -0.3163 1.0000
0.8055 0.1159 -0.3159 1.0000
0.8151 0.1685 -0.3212 1.0000
0.8080 0.1532 -0.3184 1.0000
0.8075 0.1362 -0.3182 1.0000
0.8070 0.1300 -0.3180 1.0000
0.8055 0.1251 -0.3174 1.0000
0.8053 0.1190 -0.3173 1.0000
0.8043 0.1173 -0.3169 1.0000
0.8038 0.1142 -0.3167 1.0000
0.8132 0.1650 -0.3220 1.0000
0.8091 0.1627 -0.3204 0.0000
0.8077 0.1593 -0.3198 0.0000
0.8061 0.1529 -0.3192 1.0000
0.8058 0.1513 -0.3191 1.0000
0.8071 0.1500 -0.3196 1.0000
0.8071 0.1438 -0.3196 1.0000
0.8068 0.1392 -0.3195 1.0000
0.8066 0.1376 -0.3194 1.0000
0.8096 0.1658 -0.3221 1.0000
0.8079 0.1624 -0.3214 0.0000
0.8078 0.1608 -0.3214 0.0000
0.8065 0.1575 -0.3209 1.0000
0.8060 0.1498 -0.3207 1.0000
0.8054 0.1451 -0.3204 1.0000
0.8054 0.1405 -0.3204 1.0000
0.8043 0.1372 -0.3200 0.0000
0.8034 0.1340 -0.3196 1.0000
0.8027 0.1293 -0.3193 1.0000
0.8019 0.1261 -0.3190 1.0000
0.8021 0.1216 -0.3191 1.0000
0.8030 0.1553 -0.3210 1.0000
0.8036 0.1509 -0.3213 1.0000
0.8039 0.1448 -0.3214 1.0000
0.8029 0.1431 -0.3210 1.0000
0.8025 0.1369 -0.3208 2.0000
0.8025 0.1354 -0.3208 0.0000
0.8019 0.1337 -0.3206 1.0000
0.8010 0.1260 -0.3202 1.0000
0.7996 0.1227 -0.3196 1.0000
0.8043 0.1602 -0.3230 0.0000
0.8008 0.1549 -0.3216 1.0000
0.8035 0.1493 -0.3227 1.0000
0.8014 0.1596 -0.3234 1.0000
0.8003 0.1502 -0.3230 1.0000
0.8003 0.1472 -0.3230 1.0000
0.8000 0.1426 -0.3229 1.0000
0.7996 0.1394 -0.3227 1.0000
0.7992 0.1379 -0.3225 1.0000
0.7987 0.1363 -0.3223 1.0000
0.7982 0.1331 -0.3221 1.0000
0.7971 0.1314 -0.3217 1.0000
0.8000 0.1578 -0.3244 1.0000
0.7988 0.1439 -0.3239 1.0000
0.7983 0.1407 -0.3237 1.0000
0.7961 0.1358 -0.3228 1.0000
0.7982 0.1574 -0.3252 1.0000
0.7973 0.1557 -0.3248 1.0000
0.7968 0.1541 -0.3261 1.0000
0.7964 0.1495 -0.3260 1.0000
0.7955 0.1448 -0.3256 1.0000
0.7953 0.1553 -0.3270 1.0000
0.7939 0.1536 -0.3264 1.0000
0.7942 0.1491 -0.3265 1.0000
0.7943 0.1446 -0.3266 1.0000
