ply
format ascii 1.0
comment Created by CloudCompare v2.11.1 (Anoia)
comment Created 09/09/22 20:41
obj_info Generated by CloudCompare!
element vertex 1060
property float x
property float y
property float z
property uchar red
property uchar green
property uchar blue
end_header
0.856147 0.0222117 -0.277072 49 48 42 
0.855426 0.017309 -0.276839 42 40 35 
0.856771 0.0140751 -0.277274 40 39 33 
0.856007 0.0319826 -0.278656 46 45 41 
0.85565 0.0303409 -0.27854 48 47 42 
0.855128 0.0254401 -0.27837 43 44 38 
0.852399 0.0221145 -0.277482 64 63 57 
0.854964 0.0189268 -0.278316 52 55 44 
0.856098 0.0108055 -0.278686 42 40 36 
0.856286 0.00754866 -0.278747 40 39 34 
0.856363 0.00428979 -0.278772 44 43 38 
0.85649 0.00266041 -0.278813 52 51 48 
0.856767 -0.000599809 -0.278904 44 44 40 
0.857086 -0.00549348 -0.279007 39 39 37 
0.856778 -0.00875263 -0.278907 35 35 33 
0.855818 -0.0120003 -0.278595 47 48 43 
0.854625 -0.01361 -0.278206 68 69 64 
0.852794 -0.0184498 -0.27761 45 46 41 
0.855483 0.0368473 -0.280114 45 44 40 
0.854882 0.0351945 -0.279917 44 43 40 
0.85413 0.030287 -0.279671 42 41 37 
0.853118 0.0270039 -0.279339 44 45 38 
0.852322 0.0253566 -0.279079 46 46 40 
0.849699 0.0204273 -0.27822 99 122 86 
0.848654 0.0187871 -0.277878 109 129 93 
0.852615 0.0172521 -0.279174 35 38 32 
0.854286 0.0107827 -0.279722 41 40 35 
0.854849 0.00753599 -0.279906 41 40 35 
0.855142 0.00591113 -0.280002 40 42 35 
0.855953 -0.00222823 -0.280267 33 34 29 
0.855788 -0.00874251 -0.280214 35 35 32 
0.854628 -0.0119836 -0.279834 37 38 34 
0.852786 -0.0168267 -0.279231 41 41 36 
0.851271 -0.021657 -0.278735 41 41 39 
0.850313 -0.0232509 -0.278421 37 37 34 
0.855927 0.0417533 -0.281888 50 49 45 
0.853557 0.0367644 -0.281107 47 46 42 
0.852932 0.0318677 -0.280902 41 40 36 
0.852454 0.0302276 -0.280744 42 41 37 
0.851208 0.0269434 -0.280334 39 41 34 
0.851014 0.0253177 -0.28027 45 46 40 
0.850749 0.0236907 -0.280183 43 45 37 
0.841784 0.020237 -0.27723 118 162 109 
0.841203 0.0186221 -0.277039 121 161 103 
0.849333 0.0171857 -0.279716 32 37 27 
0.852684 0.0107624 -0.28082 44 42 37 
0.853552 0.00752456 -0.281106 41 41 36 
0.853768 0.00427679 -0.281177 42 43 37 
0.853917 0.00265242 -0.281226 40 41 35 
0.854424 -0.00385033 -0.281393 34 36 30 
0.853885 -0.00872307 -0.281215 33 33 29 
0.853064 -0.0119617 -0.280945 41 40 39 
0.851439 -0.0168001 -0.28041 38 37 37 
0.849802 -0.0216196 -0.279871 39 39 38 
0.849152 -0.0232192 -0.279657 42 41 40 
0.85391 0.0400298 -0.282849 42 42 37 
0.850687 0.0301649 -0.281781 43 41 38 
0.849671 0.0285118 -0.281445 44 43 39 
0.847987 0.0252276 -0.280887 44 44 39 
0.84708 0.0235886 -0.280586 43 47 38 
0.836925 0.0185274 -0.277223 124 163 96 
0.845327 0.0171047 -0.280006 52 66 38 
0.852251 0.0010253 -0.282299 46 46 41 
0.853677 -0.000597646 -0.282772 44 45 39 
0.848416 -0.0215844 -0.281029 42 42 39 
0.847702 -0.0231795 -0.280793 42 42 39 
0.854051 0.0481633 -0.284521 47 46 41 
0.853952 0.0465325 -0.284488 48 47 43 
0.853375 0.0432529 -0.284296 48 47 43 
0.853168 0.0416187 -0.284227 50 49 46 
0.85267 0.0399717 -0.284061 45 44 40 
0.851297 0.0350469 -0.283603 41 40 36 
0.849895 0.0317543 -0.283136 42 43 39 
0.838597 0.0201604 -0.279372 118 161 100 
0.839692 0.0169906 -0.279737 62 81 45 
0.850057 0.0107293 -0.28319 39 40 31 
0.850831 0.00911982 -0.283448 41 40 36 
0.850681 0.00588029 -0.283398 43 42 38 
0.85127 0.0026442 -0.283594 44 43 39 
0.851016 -0.00707417 -0.28351 101 104 82 
0.849591 -0.00867921 -0.283035 108 110 92 
0.850785 -0.0119297 -0.283433 42 43 33 
0.843578 -0.0134341 -0.281032 76 77 64 
0.849331 -0.0167585 -0.282949 36 36 28 
0.848378 -0.0183543 -0.282631 24 23 19 
0.840503 -0.0197835 -0.280008 21 21 18 
0.852244 0.0480614 -0.285541 64 63 58 
0.851783 0.0447933 -0.285386 41 40 36 
0.851664 0.0415453 -0.285346 46 45 41 
0.851129 0.0398994 -0.285167 43 42 38 
0.850139 0.0366172 -0.284836 42 41 37 
0.849836 0.0349868 -0.284734 41 40 36 
0.8484 0.0316984 -0.284253 42 43 38 
0.847245 0.0284304 -0.283866 45 48 38 
0.84578 0.0267716 -0.283375 46 53 40 
0.844594 0.0235193 -0.282978 45 50 39 
0.838426 0.016965 -0.280911 51 71 40 
0.847326 0.01392 -0.283893 31 33 22 
0.84789 0.0107019 -0.284082 41 43 33 
0.848309 0.00424945 -0.284223 41 40 36 
0.847732 0.00101986 -0.284029 46 45 41 
0.848561 -0.00220899 -0.284307 43 43 40 
0.849427 -0.00382782 -0.284597 39 40 33 
0.842867 -0.00540234 -0.282399 56 62 41 
0.837424 -0.00696118 -0.280575 90 103 66 
0.813878 -0.00831437 -0.272686 131 150 106 
0.830344 -0.0100628 -0.278203 74 95 51 
0.843824 -0.0118321 -0.28272 37 60 19 
0.827 -0.0131701 -0.277083 104 132 73 
0.829085 -0.0179369 -0.277782 101 127 73 
0.830714 -0.0195531 -0.278327 103 126 78 
0.832204 -0.0211719 -0.278826 62 80 49 
0.839406 -0.0229527 -0.281239 24 29 21 
0.851444 0.0561183 -0.286893 40 41 33 
0.851394 0.0528744 -0.286876 45 43 39 
0.851359 0.0512519 -0.286864 46 45 40 
0.850386 0.0463382 -0.286537 37 36 32 
0.850374 0.0447191 -0.286533 41 40 36 
0.850073 0.0430855 -0.286431 46 45 41 
0.850074 0.03985 -0.286432 47 46 42 
0.848462 0.0365449 -0.285888 39 38 34 
0.846492 0.0316271 -0.285225 45 47 40 
0.845198 0.0299702 -0.284789 44 46 38 
0.844886 0.0283513 -0.284684 46 51 40 
0.842851 0.0250749 -0.283998 37 45 32 
0.841549 0.0234345 -0.283559 37 46 32 
0.829359 0.0199383 -0.279452 91 121 74 
0.834646 0.018477 -0.281233 129 159 102 
0.834654 0.0137118 -0.281236 70 85 56 
0.840475 0.0122079 -0.283197 63 75 50 
0.845687 0.00906467 -0.284953 44 45 38 
0.846789 0.00746494 -0.285325 47 47 42 
0.846977 0.00585469 -0.285388 39 40 34 
0.814055 -0.00521767 -0.274295 111 142 87 
0.807853 -0.00671537 -0.272205 127 166 101 
0.806407 -0.00823805 -0.271718 122 165 96 
0.806207 -0.00977032 -0.271651 128 173 99 
0.806692 -0.0128467 -0.271814 126 171 100 
0.808326 -0.0144111 -0.272365 125 173 101 
0.809145 -0.0175055 -0.27264 127 170 101 
0.812565 -0.0191259 -0.273793 136 177 111 
0.830921 -0.0227207 -0.279978 19 21 19 
0.84955 0.0624607 -0.287872 39 39 27 
0.849574 0.0608456 -0.28788 43 43 36 
0.849853 0.0576308 -0.287975 48 49 41 
0.84999 0.0544048 -0.288021 43 45 36 
0.849926 0.0511657 -0.287999 46 45 40 
0.849743 0.0479203 -0.287937 42 41 36 
0.847202 0.0348783 -0.287076 40 39 35 
0.844515 0.0315532 -0.286166 41 44 37 
0.842847 0.0282828 -0.2856 39 44 34 
0.840407 0.0266015 -0.284774 56 67 47 
0.83045 0.0247059 -0.2814 74 103 61 
0.82976 0.0231063 -0.281166 84 114 68 
0.828244 0.0214878 -0.280652 84 120 68 
0.829392 0.0167822 -0.281041 75 110 53 
0.832097 0.0152534 -0.281958 86 124 66 
0.836454 0.0121495 -0.283434 81 108 68 
0.841603 0.0106226 -0.285179 35 36 30 
0.839886 0.00101042 -0.284597 14 20 11 
0.831748 -0.000582294 -0.28184 70 92 54 
0.805018 -0.00515975 -0.272782 120 170 94 
0.804915 -0.00822281 -0.272747 121 171 94 
0.803307 -0.011264 -0.272202 118 169 94 
0.803048 -0.0127887 -0.272114 118 169 95 
0.804188 -0.0173982 -0.272501 115 162 97 
0.806898 -0.0189925 -0.273419 127 168 109 
0.829834 -0.0226909 -0.281191 23 28 19 
0.847042 0.0671124 -0.288634 42 43 31 
0.847479 0.0655341 -0.288783 42 42 32 
0.847873 0.063951 -0.288917 40 40 31 
0.848284 0.0607532 -0.289057 42 42 34 
0.848396 0.0591466 -0.289095 45 43 40 
0.848542 0.055927 -0.289145 40 38 34 
0.848268 0.0510659 -0.289052 44 43 40 
0.848245 0.0478358 -0.289044 43 42 38 
0.848416 0.0446162 -0.289102 40 42 36 
0.847889 0.0429748 -0.288923 41 42 37 
0.846692 0.0364687 -0.288515 44 46 41 
0.845626 0.0348135 -0.288152 40 41 36 
0.842177 0.0298631 -0.286976 39 46 34 
0.828509 0.0246482 -0.282319 102 144 88 
0.826812 0.0183036 -0.281741 56 93 36 
0.827856 0.0151756 -0.282097 85 117 66 
0.835014 0.0121286 -0.284535 52 69 37 
0.842105 0.00742364 -0.286952 43 44 35 
0.842859 0.00261807 -0.287209 48 55 37 
0.809357 -0.000566618 -0.275793 121 174 94 
0.801275 -0.0112355 -0.273039 120 169 95 
0.802513 -0.0143074 -0.273461 120 167 95 
0.802552 -0.0173628 -0.273474 121 167 96 
0.80494 -0.0189464 -0.274287 119 162 96 
0.845595 0.0718256 -0.28975 44 46 33 
0.844441 0.0347646 -0.289355 44 44 41 
0.842301 0.0330736 -0.288622 44 44 41 
0.839074 0.0297531 -0.287516 39 48 35 
0.837707 0.0281103 -0.287047 35 49 32 
0.827601 0.0230461 -0.283584 87 123 68 
0.825701 0.0214218 -0.282933 81 119 60 
0.834137 0.0121158 -0.285824 34 43 26 
0.837172 0.0105667 -0.286864 36 43 26 
0.837875 0.00419718 -0.287105 17 22 14 
0.830968 0.00258114 -0.284738 83 100 72 
0.803083 -0.000562226 -0.275183 116 161 90 
0.801337 -0.00208605 -0.274585 114 164 90 
0.80186 -0.00361346 -0.274764 115 165 89 
0.801828 -0.00666529 -0.274753 117 166 89 
0.822748 -0.0224972 -0.281922 29 41 24 
0.825035 -0.0241299 -0.282705 31 40 27 
0.843551 0.0732573 -0.290655 47 49 37 
0.84476 0.0653239 -0.291072 44 44 35 
0.844905 0.0637272 -0.291122 42 42 36 
0.845506 0.0589452 -0.291329 41 40 35 
0.845614 0.0557341 -0.291366 42 41 36 
0.845749 0.0541334 -0.291413 42 41 36 
0.845859 0.0509208 -0.29145 41 40 35 
0.845869 0.0477019 -0.291454 49 48 43 
0.844961 0.0412184 -0.291141 57 58 53 
0.837599 0.0376711 -0.288604 128 129 122 
0.844309 0.036366 -0.290916 117 118 113 
0.840741 0.0330123 -0.289687 43 43 39 
0.836582 0.0296647 -0.288254 42 46 40 
0.835321 0.0280303 -0.28782 40 50 37 
0.823443 0.018229 -0.283727 63 79 47 
0.825441 0.0167023 -0.284415 34 41 20 
0.834703 0.0105355 -0.287607 37 37 30 
0.83466 0.00418108 -0.287592 25 32 17 
0.811806 0.00252162 -0.279717 99 133 81 
0.802174 -0.000561589 -0.276398 113 160 84 
0.800622 -0.00513157 -0.275864 120 169 92 
0.800485 -0.00817756 -0.275816 118 166 91 
0.800419 -0.0127468 -0.275794 117 164 92 
0.802147 -0.0173541 -0.276389 121 164 100 
0.823238 -0.0240773 -0.283656 31 37 26 
0.842354 0.0795658 -0.291846 37 39 28 
0.842586 0.0763807 -0.291926 39 42 23 
0.842887 0.0715956 -0.292031 38 38 28 
0.8433 0.0684208 -0.292174 40 41 30 
0.843625 0.0636306 -0.292286 41 41 31 
0.84411 0.0588478 -0.292454 41 40 36 
0.844278 0.055646 -0.292513 42 41 36 
0.844329 0.0540425 -0.29253 37 36 31 
0.844592 0.0492372 -0.292621 45 44 39 
0.844526 0.0476261 -0.292598 44 42 37 
0.837994 0.0329044 -0.290335 38 41 36 
0.835367 0.0296216 -0.289425 39 43 35 
0.832097 0.0279221 -0.288292 42 46 39 
0.823942 0.0213762 -0.285467 108 130 96 
0.82262 0.0166452 -0.285009 48 55 37 
0.829659 0.0120508 -0.287448 39 41 30 
0.83228 0.0105049 -0.288355 41 44 31 
0.823949 0.00412742 -0.285469 70 92 52 
0.80096 0.00248793 -0.277504 101 146 75 
0.800013 -0.000560076 -0.277176 112 159 86 
0.798609 -0.00207895 -0.27669 112 161 83 
0.798671 -0.00663905 -0.276711 116 165 92 
0.798347 -0.00815571 -0.276599 117 165 92 
0.798407 -0.0096758 -0.27662 117 164 90 
0.798566 -0.0127173 -0.276675 118 166 94 
0.800263 -0.0142673 -0.277263 119 169 94 
0.803484 -0.017383 -0.278379 103 134 83 
0.8232 -0.0240762 -0.28521 32 39 28 
0.841793 0.084319 -0.293254 61 73 51 
0.841196 0.0762547 -0.293046 42 45 31 
0.841635 0.073091 -0.293199 46 46 36 
0.841657 0.0682876 -0.293206 43 39 33 
0.842188 0.0635222 -0.293391 42 41 36 
0.842503 0.0603392 -0.293501 44 43 38 
0.842589 0.0587418 -0.293531 44 43 38 
0.842813 0.0555494 -0.293609 42 43 37 
0.843096 0.0539636 -0.293708 36 37 31 
0.84312 0.0523605 -0.293716 39 41 36 
0.84292 0.0475355 -0.293646 42 44 39 
0.84164 0.0410563 -0.2932 55 56 52 
0.835567 0.0391699 -0.291085 113 122 114 
0.83127 0.0373864 -0.289588 69 77 71 
0.827859 0.034082 -0.2884 71 74 69 
0.831731 0.0294927 -0.289748 40 40 35 
0.830079 0.0278544 -0.289173 45 46 40 
0.827791 0.0246268 -0.288376 44 47 36 
0.825277 0.0229814 -0.2875 38 40 30 
0.820927 0.0212979 -0.285985 61 66 53 
0.824337 0.0151111 -0.287172 36 37 27 
0.827307 0.0120166 -0.288207 39 41 30 
0.829017 0.0104637 -0.288803 40 44 29 
0.807234 0.00404369 -0.281214 93 142 68 
0.82153 -0.0224639 -0.286195 33 40 28 
0.842518 0.0875984 -0.295109 35 38 25 
0.820569 0.0384668 -0.287422 118 151 104 
0.82229 0.0369826 -0.288024 119 145 101 
0.825477 0.024558 -0.289141 41 41 34 
0.823155 0.0229223 -0.288327 60 60 53 
0.820759 0.0197316 -0.287488 44 43 36 
0.820868 0.0150475 -0.287526 51 50 43 
0.799332 0.0040041 -0.279983 106 154 76 
0.797312 0.0024766 -0.279275 104 154 77 
0.796544 -0.000557648 -0.279006 113 162 87 
0.795218 -0.00207012 -0.278542 114 159 87 
0.795748 -0.00510033 -0.278728 116 164 87 
0.795969 -0.00661659 -0.278805 115 163 89 
0.796094 -0.00813269 -0.278849 120 165 92 
0.796394 -0.00965141 -0.278954 123 165 94 
0.796976 -0.012692 -0.279157 123 163 95 
0.799987 -0.0142624 -0.280212 107 144 81 
0.819453 -0.019288 -0.287031 26 38 20 
0.821749 -0.0240338 -0.287835 36 44 34 
0.842107 0.090761 -0.296568 132 141 100 
0.840618 0.0874009 -0.296044 39 43 24 
0.839712 0.0857087 -0.295725 46 48 32 
0.839042 0.0840434 -0.295489 45 46 31 
0.838987 0.0808445 -0.295469 45 44 33 
0.838994 0.076055 -0.295472 40 39 30 
0.839221 0.0728813 -0.295552 49 48 39 
0.839406 0.0665074 -0.295617 47 48 39 
0.83939 0.0649087 -0.295611 49 48 44 
0.839622 0.0633287 -0.295693 39 38 33 
0.839679 0.0601369 -0.295713 47 46 41 
0.839735 0.0585428 -0.295733 45 44 39 
0.839728 0.0569442 -0.295731 43 45 39 
0.840035 0.0537676 -0.295838 40 41 35 
0.839968 0.0489676 -0.295815 45 46 40 
0.838951 0.0457151 -0.295457 43 44 38 
0.837424 0.0440382 -0.294919 41 46 36 
0.808398 0.0363578 -0.284697 111 153 88 
0.812327 0.0349885 -0.286081 113 146 88 
0.823197 0.0307567 -0.289908 53 56 48 
0.827435 0.0293404 -0.291401 49 52 43 
0.826268 0.0277265 -0.29099 42 43 37 
0.82266 0.0244742 -0.28972 41 42 31 
0.821167 0.022867 -0.289194 61 62 52 
0.818995 0.0181305 -0.288429 41 44 33 
0.818949 0.0165709 -0.288413 41 41 32 
0.824949 0.0104124 -0.290526 40 45 32 
0.818468 0.00721527 -0.288243 57 72 47 
0.79604 0.00398761 -0.280344 105 151 75 
0.795502 0.00247097 -0.280155 105 154 76 
0.794361 -0.00055612 -0.279753 113 160 85 
0.793849 -0.00206656 -0.279573 116 163 89 
0.79451 -0.00358034 -0.279806 117 164 90 
0.795156 -0.00812311 -0.280033 119 167 93 
0.79647 -0.0126839 -0.280496 123 163 96 
0.812029 -0.0175679 -0.285975 78 110 63 
0.819744 -0.0192949 -0.288692 28 40 21 
0.840912 0.0922326 -0.297748 225 234 218 
0.840538 0.0905919 -0.297615 156 167 135 
0.839361 0.0872702 -0.297199 36 42 26 
0.838399 0.0855746 -0.296858 41 46 31 
0.838137 0.0839528 -0.296765 53 55 42 
0.83773 0.0807234 -0.296621 44 46 36 
0.837799 0.0791356 -0.296645 45 47 36 
0.837918 0.0775521 -0.296688 41 42 31 
0.838193 0.0743873 -0.296785 48 48 38 
0.838271 0.0727988 -0.296813 46 46 36 
0.838021 0.0663976 -0.296724 50 50 41 
0.838346 0.0648279 -0.296839 44 42 38 
0.838412 0.0600462 -0.296862 46 45 39 
0.838461 0.0568583 -0.29688 43 41 38 
0.838423 0.0504732 -0.296867 45 46 40 
0.837791 0.0488407 -0.296643 46 47 42 
0.836349 0.0455733 -0.296132 40 39 38 
0.834182 0.0438676 -0.295365 40 45 37 
0.813767 0.0381479 -0.288136 120 166 97 
0.805045 0.036207 -0.285048 108 152 86 
0.821972 0.0338397 -0.291042 70 91 53 
0.818424 0.0227906 -0.289785 67 69 60 
0.816808 0.0211911 -0.289213 58 62 52 
0.81543 0.0180516 -0.288725 52 58 42 
0.815527 0.0133976 -0.288759 70 80 54 
0.816312 0.0118569 -0.289037 62 68 43 
0.820139 0.0103517 -0.290393 40 47 21 
0.807692 0.00712027 -0.285985 78 106 64 
0.794757 -0.00963157 -0.281406 127 169 97 
0.82016 -0.0224264 -0.2904 37 43 31 
0.83659 0.0917586 -0.29781 138 138 134 
0.837264 0.059964 -0.29805 40 39 35 
0.836392 0.0519427 -0.297739 41 42 37 
0.835736 0.0487209 -0.297506 44 45 40 
0.833507 0.0454184 -0.296712 39 41 35 
0.832295 0.0437684 -0.296281 42 43 39 
0.802637 0.0345711 -0.285723 115 156 93 
0.80579 0.0331735 -0.286846 111 138 86 
0.821535 0.0306946 -0.29245 35 41 27 
0.807733 0.0132695 -0.287537 98 133 70 
0.80514 0.0116946 -0.286614 104 143 62 
0.801075 0.010111 -0.285167 93 126 57 
0.815748 0.00874377 -0.29039 48 67 29 
0.800464 0.00705655 -0.284949 80 100 58 
0.794041 0.0039776 -0.282663 105 151 81 
0.791995 0.00246008 -0.281935 107 153 82 
0.791919 -0.00206154 -0.281908 116 164 91 
0.792123 -0.00356959 -0.28198 117 166 91 
0.792978 -0.00659172 -0.282285 121 167 94 
0.793639 -0.00810762 -0.28252 120 166 95 
0.819779 -0.0192957 -0.291825 43 48 31 
0.839245 0.0984385 -0.300352 40 36 28 
0.835952 0.0885067 -0.299173 51 48 44 
0.835895 0.0869099 -0.299153 36 34 26 
0.83533 0.0836716 -0.298951 39 36 27 
0.834938 0.0804544 -0.298811 41 42 34 
0.835362 0.0757258 -0.298962 41 41 33 
0.835247 0.0741258 -0.298921 53 53 45 
0.835818 0.0709951 -0.299125 50 47 44 
0.836408 0.0694535 -0.299337 46 43 40 
0.836226 0.064664 -0.299271 45 43 39 
0.835225 0.0566388 -0.298913 44 45 40 
0.831344 0.0468827 -0.297524 40 42 37 
0.828329 0.0435598 -0.296445 41 47 40 
0.812117 0.0380706 -0.290643 125 163 103 
0.803347 0.0361306 -0.287505 111 147 82 
0.80344 0.0330767 -0.287538 111 145 83 
0.81725 0.0305346 -0.29248 44 60 36 
0.817944 0.0258905 -0.292729 44 53 32 
0.816743 0.0242981 -0.292299 27 35 17 
0.812187 0.0164341 -0.290668 34 43 29 
0.80549 0.0132327 -0.288272 102 142 62 
0.801898 0.0116476 -0.286986 93 133 41 
0.793247 0.00397362 -0.28389 105 151 78 
0.792465 -0.00357112 -0.28361 114 163 86 
0.794397 -0.00811536 -0.284302 123 170 99 
0.808795 -0.0144194 -0.289454 125 137 107 
0.828569 0.0908788 -0.298108 111 138 76 
0.833569 0.0850816 -0.299907 37 37 30 
0.833367 0.0834749 -0.299834 41 38 29 
0.83321 0.0802879 -0.299778 47 45 38 
0.83244 0.0786294 -0.299501 42 42 34 
0.833363 0.0771305 -0.299833 41 41 33 
0.832993 0.0723405 -0.2997 51 54 44 
0.83242 0.0691222 -0.299493 51 53 42 
0.831964 0.0659177 -0.29933 53 55 43 
0.83391 0.0613108 -0.30003 42 43 35 
0.833895 0.0581357 -0.300024 55 54 51 
0.833137 0.0549117 -0.299751 55 57 49 
0.831598 0.0532276 -0.299198 47 47 41 
0.830924 0.0500217 -0.298955 41 43 37 
0.825118 0.043391 -0.296866 42 49 38 
0.800364 0.0359964 -0.28796 103 143 79 
0.799693 0.0344444 -0.287719 101 144 77 
0.801547 0.0329988 -0.288386 106 150 80 
0.801738 0.0284292 -0.288455 103 144 79 
0.812933 0.0210905 -0.292482 59 72 45 
0.81195 0.0179745 -0.292129 47 57 36 
0.807702 0.0163433 -0.2906 45 54 35 
0.802559 0.0131845 -0.28875 105 144 67 
0.797695 0.0115865 -0.287 90 133 34 
0.794834 0.00851959 -0.285971 89 137 39 
0.790725 0.00245614 -0.284492 107 158 81 
0.790929 -0.00205896 -0.284566 111 162 85 
0.792154 -0.00356972 -0.285006 110 163 85 
0.792757 -0.00658988 -0.285223 111 158 89 
0.818218 -0.0223733 -0.294384 42 45 38 
0.837937 0.101475 -0.303073 65 58 53 
0.827784 0.092368 -0.299401 111 161 99 
0.830898 0.084809 -0.300527 33 35 23 
0.830618 0.0800381 -0.300426 47 47 37 
0.830462 0.0752816 -0.30037 51 52 43 
0.826889 0.0718103 -0.299077 78 84 63 
0.826486 0.0670567 -0.298932 104 131 99 
0.829211 0.0656997 -0.299917 79 96 69 
0.825612 0.0591295 -0.298615 82 87 60 
0.825352 0.0543986 -0.298522 53 54 41 
0.826756 0.0529177 -0.299029 45 46 36 
0.825466 0.0496932 -0.298563 42 44 38 
0.825356 0.046545 -0.298523 41 42 37 
0.800381 0.0253346 -0.28949 80 124 59 
0.800364 0.0222877 -0.289484 80 119 60 
0.806279 0.017849 -0.291623 62 81 40 
0.797146 0.0130956 -0.28832 83 101 51 
0.790789 0.00396131 -0.28602 104 149 75 
0.817747 -0.0208041 -0.295771 40 44 36 
0.833287 0.105669 -0.302977 36 31 24 
0.832936 0.100869 -0.30285 45 45 32 
0.832687 0.0976693 -0.302759 27 30 17 
0.83175 0.0959765 -0.302418 22 28 12 
0.82677 0.0922549 -0.300608 108 158 94 
0.826397 0.0906406 -0.300472 103 150 73 
0.823777 0.0887855 -0.29952 74 109 45 
0.825754 0.0858555 -0.300238 96 128 68 
0.827963 0.081358 -0.301042 37 38 27 
0.827268 0.0765665 -0.300789 42 47 32 
0.826423 0.0749155 -0.300482 44 53 37 
0.823116 0.0714827 -0.299279 92 114 72 
0.817348 0.0678707 -0.297182 71 93 56 
0.823716 0.0668319 -0.299497 85 106 67 
0.81841 0.0648439 -0.297568 69 85 48 
0.823022 0.0636429 -0.299245 58 69 42 
0.823929 0.060577 -0.299575 55 66 39 
0.810255 0.0564876 -0.294603 98 122 65 
0.823512 0.0527101 -0.299423 32 39 29 
0.821735 0.0510324 -0.298777 38 44 34 
0.822866 0.0479706 -0.299188 38 41 32 
0.820889 0.0447309 -0.29847 42 43 37 
0.819932 0.0415578 -0.298121 39 49 37 
0.813605 0.0396888 -0.295821 26 34 19 
0.798573 0.0359159 -0.290355 108 151 82 
0.797586 0.0343536 -0.289997 106 149 81 
0.797629 0.0313195 -0.290012 102 147 75 
0.797821 0.0298087 -0.290082 104 144 76 
0.797052 0.0252292 -0.289802 80 115 53 
0.796537 0.0221811 -0.289615 78 114 52 
0.796364 0.0191451 -0.289552 78 112 56 
0.795135 0.0176023 -0.289106 82 119 61 
0.790743 0.00396108 -0.287509 108 144 72 
0.790679 0.000951225 -0.287485 84 116 52 
0.813995 -0.0098647 -0.295963 39 41 29 
0.815552 -0.0191962 -0.296529 57 59 53 
0.830186 0.103696 -0.30343 41 39 34 
0.827687 0.100233 -0.302516 73 92 57 
0.821262 0.0932033 -0.300168 60 100 38 
0.822657 0.0886647 -0.300678 87 134 56 
0.823867 0.0856592 -0.30112 130 174 100 
0.821809 0.0729332 -0.300368 87 105 73 
0.821431 0.0713364 -0.30023 105 139 95 
0.814882 0.0630135 -0.297836 63 81 43 
0.807254 0.059351 -0.295048 101 144 74 
0.80619 0.0577385 -0.294659 110 155 77 
0.807999 0.0547926 -0.29532 126 170 92 
0.811818 0.0535066 -0.296716 86 103 63 
0.816259 0.0522458 -0.298339 38 41 37 
0.81749 0.049213 -0.298789 38 42 34 
0.817273 0.0460892 -0.29871 41 42 37 
0.815056 0.044413 -0.2979 31 32 26 
0.796992 0.0358448 -0.291297 106 150 81 
0.796712 0.0343159 -0.291195 106 150 79 
0.795735 0.0206444 -0.290838 76 112 50 
0.791898 0.0160236 -0.289436 79 116 54 
0.794443 0.0145631 -0.290366 67 102 40 
0.791063 0.00998467 -0.28913 86 120 49 
0.813886 -0.0145102 -0.297472 59 62 51 
0.827536 0.103365 -0.304036 40 35 29 
0.823157 0.098118 -0.302427 123 175 101 
0.822381 0.0964604 -0.302142 114 163 92 
0.823228 0.0840261 -0.302453 56 63 43 
0.822142 0.0792213 -0.302054 37 39 26 
0.818638 0.0726518 -0.300767 65 75 50 
0.813687 0.0675667 -0.298948 33 41 20 
0.809654 0.0610684 -0.297466 105 153 76 
0.804262 0.059131 -0.295485 109 157 76 
0.803595 0.0544939 -0.29524 105 138 76 
0.812377 0.0504513 -0.298467 43 44 36 
0.812979 0.0489414 -0.298688 40 44 34 
0.812557 0.0427304 -0.298533 58 60 51 
0.80937 0.0394822 -0.297362 30 36 24 
0.792738 0.0175492 -0.291251 78 115 47 
0.787452 0.0129363 -0.289309 100 137 63 
0.789456 0.0114668 -0.290045 94 131 58 
0.792094 0.00547531 -0.291015 75 104 46 
0.813081 -0.00830623 -0.298725 48 50 37 
0.813944 -0.0191584 -0.299042 43 44 37 
0.813553 -0.0222457 -0.298899 51 52 46 
0.825327 0.103089 -0.304795 44 44 33 
0.824922 0.101468 -0.304646 40 42 30 
0.819967 0.0961773 -0.302816 93 109 66 
0.819272 0.0945366 -0.302559 85 104 56 
0.819196 0.0929689 -0.302531 80 100 50 
0.817667 0.0881269 -0.301966 55 69 26 
0.81846 0.085097 -0.302259 31 37 19 
0.818474 0.0804256 -0.302264 26 28 16 
0.819477 0.0758454 -0.302635 40 41 34 
0.817073 0.0709579 -0.301747 47 49 37 
0.805726 0.053105 -0.297556 50 51 45 
0.807186 0.0501289 -0.298096 46 49 38 
0.806701 0.045493 -0.297917 58 59 53 
0.804635 0.0438452 -0.297154 75 77 70 
0.804771 0.042321 -0.297204 56 60 50 
0.794799 0.0357462 -0.293521 107 152 77 
0.794669 0.034228 -0.293473 107 150 80 
0.79461 0.0312009 -0.293451 104 153 78 
0.792909 0.0266071 -0.292823 52 76 29 
0.790602 0.0250251 -0.291971 43 66 26 
0.793313 0.0220913 -0.292972 79 113 58 
0.793233 0.0205794 -0.292943 74 109 51 
0.787205 0.0174268 -0.290717 89 134 52 
0.785579 0.0158957 -0.290116 87 135 51 
0.785563 0.0144003 -0.29011 87 135 48 
0.786855 0.0114291 -0.290587 83 129 44 
0.813251 -0.00830797 -0.300336 43 44 30 
0.812832 -0.0129445 -0.300181 59 62 48 
0.811958 -0.0144758 -0.299858 61 64 51 
0.819943 0.0992955 -0.304367 37 39 26 
0.818616 0.0975768 -0.303875 22 24 13 
0.817381 0.0943184 -0.303416 29 33 19 
0.81776 0.0896933 -0.303557 87 102 57 
0.816938 0.0849388 -0.303252 30 33 20 
0.817519 0.0834434 -0.303468 42 44 32 
0.817143 0.0787396 -0.303328 39 37 26 
0.817023 0.0756182 -0.303283 48 45 38 
0.814099 0.0706996 -0.302198 54 58 43 
0.812459 0.069011 -0.301589 53 62 46 
0.805435 0.0653487 -0.298982 78 97 58 
0.803172 0.0636365 -0.298142 106 142 73 
0.802049 0.0620212 -0.297725 91 133 60 
0.799679 0.060316 -0.296845 97 137 65 
0.801165 0.0558539 -0.297397 44 51 28 
0.804874 0.0515171 -0.298773 49 56 45 
0.793405 0.0341735 -0.294516 104 150 78 
0.793353 0.0296417 -0.294497 101 150 78 
0.790668 0.0265319 -0.2935 34 45 21 
0.788444 0.0219557 -0.292675 47 64 35 
0.784901 0.0099069 -0.29136 85 137 44 
0.786862 0.00843415 -0.292087 90 139 48 
0.786914 0.00693711 -0.292107 106 153 66 
0.807272 -0.000565158 -0.299664 54 63 43 
0.812301 -0.00675235 -0.301531 41 43 32 
0.810805 -0.0175414 -0.300975 52 54 44 
0.810662 -0.0206239 -0.300922 46 48 38 
0.819583 0.100812 -0.305793 41 40 33 
0.816187 0.0941807 -0.304527 29 32 21 
0.815023 0.0847398 -0.304092 36 36 25 
0.814334 0.0784689 -0.303835 21 25 17 
0.814258 0.0753624 -0.303807 36 41 25 
0.813414 0.0737362 -0.303492 43 51 29 
0.811028 0.070433 -0.302602 42 52 29 
0.799731 0.0633639 -0.298387 101 139 65 
0.799279 0.061807 -0.298218 96 133 62 
0.798271 0.0586906 -0.297842 108 143 77 
0.798805 0.0572096 -0.298041 63 83 38 
0.799583 0.0557436 -0.298331 67 75 52 
0.798607 0.0450366 -0.297967 94 96 88 
0.801901 0.0421701 -0.299196 24 26 16 
0.800751 0.0390617 -0.298767 36 43 29 
0.792251 0.0341238 -0.295596 106 149 81 
0.787186 0.0249169 -0.293706 24 33 10 
0.784074 0.0203418 -0.292545 59 78 40 
0.783419 0.0173429 -0.2923 89 134 45 
0.782937 0.0128622 -0.29212 86 136 42 
0.784144 0.0113897 -0.292571 85 137 42 
0.786687 0.00543793 -0.29352 106 152 65 
0.809358 -0.00210694 -0.301978 105 113 88 
0.810583 -0.00365277 -0.302435 62 68 47 
0.810993 -0.0129152 -0.302588 64 66 54 
0.809397 -0.0159705 -0.301993 64 67 56 
0.809639 -0.0205979 -0.302083 43 44 36 
0.817647 0.100573 -0.306627 40 37 31 
0.817142 0.0989562 -0.306438 39 37 29 
0.815891 0.097252 -0.305969 32 34 23 
0.814124 0.0908438 -0.305306 110 150 88 
0.814487 0.0893342 -0.305442 90 126 66 
0.812925 0.0829745 -0.304856 38 45 21 
0.814107 0.0815458 -0.3053 39 44 26 
0.808558 0.0779124 -0.303219 108 149 88 
0.806822 0.0746742 -0.302568 102 150 77 
0.806009 0.073065 -0.302263 104 153 79 
0.80358 0.0697861 -0.301352 88 131 60 
0.797736 0.0632058 -0.29916 103 141 61 
0.79706 0.0601184 -0.298907 103 138 66 
0.797948 0.0556296 -0.29924 67 82 43 
0.801636 0.0497842 -0.300623 33 41 19 
0.801563 0.0482542 -0.300595 38 45 25 
0.796508 0.0449182 -0.2987 89 101 79 
0.800741 0.0421091 -0.300287 58 66 44 
0.797364 0.0388965 -0.299021 68 81 52 
0.791761 0.0356095 -0.29692 108 146 86 
0.79035 0.0325378 -0.296391 101 145 70 
0.790107 0.0295204 -0.296299 105 149 72 
0.783373 0.0233054 -0.293774 38 51 28 
0.782648 0.0188153 -0.293502 87 130 53 
0.782114 0.0158256 -0.293302 87 134 45 
0.781812 0.0128437 -0.293189 86 138 44 
0.783382 0.00988773 -0.293777 88 142 47 
0.786926 0.00543958 -0.295106 101 145 61 
0.808327 -0.00210425 -0.303132 96 107 75 
0.810314 -0.00982009 -0.303877 39 42 31 
0.808443 -0.0159517 -0.303176 63 66 56 
0.807397 -0.0190043 -0.302783 78 79 73 
0.815434 0.100301 -0.307349 38 32 27 
0.815208 0.0987221 -0.307264 37 34 27 
0.814607 0.0955486 -0.307038 35 37 22 
0.813718 0.0907985 -0.306702 103 127 83 
0.812982 0.0860748 -0.306425 102 132 74 
0.810056 0.0795984 -0.305322 81 123 70 
0.803923 0.0728759 -0.303011 105 163 78 
0.800328 0.0679806 -0.301655 106 149 72 
0.800169 0.0664443 -0.301596 77 119 45 
0.796219 0.0509631 -0.300107 73 105 38 
0.79613 0.0479272 -0.300073 75 107 38 
0.79114 0.0385929 -0.298192 91 130 63 
0.788414 0.035459 -0.297165 86 121 56 
0.787982 0.0324403 -0.297002 96 140 53 
0.787792 0.0294339 -0.29693 100 145 59 
0.786958 0.0279051 -0.296616 103 146 60 
0.780521 0.0187642 -0.29419 92 137 59 
0.779414 0.0172543 -0.293773 89 138 51 
0.798205 0.00247937 -0.300855 96 132 70 
0.802458 0.000965396 -0.302458 87 118 65 
0.808723 -0.0113399 -0.30482 35 38 30 
0.808247 -0.0128715 -0.30464 63 66 57 
0.812541 0.0906672 -0.307805 56 69 43 
0.80932 0.0841468 -0.306585 103 155 85 
0.806355 0.0792347 -0.305462 122 179 101 
0.804725 0.077543 -0.304844 110 168 89 
0.804158 0.075958 -0.304629 110 167 85 
0.802145 0.0742413 -0.303867 109 165 83 
0.798207 0.0678004 -0.302375 96 142 56 
0.797661 0.066236 -0.302168 88 133 45 
0.795622 0.0630383 -0.301396 101 148 58 
0.794217 0.0614155 -0.300864 101 146 58 
0.793571 0.0598553 -0.300619 102 148 59 
0.792813 0.0567805 -0.300332 97 144 52 
0.79277 0.0537598 -0.300315 90 138 44 
0.79211 0.0522076 -0.300065 92 141 46 
0.792415 0.0507197 -0.300181 93 141 45 
0.793188 0.0462405 -0.300474 87 135 37 
0.792455 0.0431815 -0.300196 89 138 37 
0.790736 0.0400781 -0.299545 93 141 43 
0.784833 0.0352979 -0.297309 57 99 23 
0.785992 0.0293667 -0.297748 100 146 53 
0.785924 0.0278684 -0.297722 103 147 55 
0.783248 0.0262829 -0.296708 107 151 59 
0.780264 0.0232129 -0.295578 59 85 32 
0.77983 0.0202317 -0.295414 64 83 47 
0.77827 0.0142667 -0.294823 92 146 51 
0.779115 0.0127994 -0.295143 88 143 48 
0.780314 0.009849 -0.295597 95 149 56 
0.785227 0.00692223 -0.297458 95 145 56 
0.796653 0.00247455 -0.301786 84 131 51 
0.805659 -0.00209731 -0.305198 95 128 68 
0.807414 -0.00363849 -0.305863 83 101 56 
0.807974 -0.00825406 -0.306075 37 43 29 
0.807594 -0.0113241 -0.305931 34 37 25 
0.807404 -0.012858 -0.305859 57 59 49 
0.805146 -0.0143544 -0.305004 89 91 81 
0.805272 -0.0189542 -0.305052 58 59 51 
0.813068 0.0984629 -0.309552 37 33 25 
0.81204 0.0937022 -0.309161 35 37 22 
0.811514 0.092097 -0.308961 26 29 15 
0.805035 0.079105 -0.306494 124 171 104 
0.800507 0.0710427 -0.30477 76 121 42 
0.794357 0.0629381 -0.302428 99 147 58 
0.792954 0.0613178 -0.301894 99 148 58 
0.792169 0.0582419 -0.301595 94 145 51 
0.792036 0.0567248 -0.301545 93 143 50 
0.7907 0.0536195 -0.301036 91 141 43 
0.791128 0.0521429 -0.301199 91 138 41 
0.791204 0.0491364 -0.301228 90 138 38 
0.791015 0.0461138 -0.301156 90 139 36 
0.790488 0.0430743 -0.300956 93 141 38 
0.788524 0.0414666 -0.300208 95 145 39 
0.788749 0.0369752 -0.300293 94 142 41 
0.778358 0.0201935 -0.296337 33 55 24 
0.775814 0.0186511 -0.295369 108 152 73 
0.775696 0.017172 -0.295324 93 145 50 
0.777013 0.0142436 -0.295825 91 146 51 
0.777349 0.0127704 -0.295953 94 149 54 
0.778419 0.00982508 -0.29636 98 150 55 
0.780757 0.00836871 -0.297251 105 161 64 
0.793197 0.00548293 -0.301987 80 125 53 
0.797032 0.00247573 -0.303447 89 132 60 
0.800228 0.000962713 -0.304664 91 132 63 
0.801724 -0.00208706 -0.305233 103 141 76 
0.802037 -0.00361426 -0.305353 102 134 75 
0.805713 -0.00823096 -0.306752 41 48 31 
0.805671 -0.0112971 -0.306736 62 65 51 
0.804176 -0.0143371 -0.306167 43 45 35 
0.803673 -0.0158576 -0.305975 53 56 46 
0.80338 -0.0173808 -0.305864 51 52 44 
0.803223 -0.0204346 -0.305804 51 52 44 
0.81151 0.0998186 -0.310503 46 44 33 
0.811469 0.0967249 -0.310488 32 34 20 
0.8109 0.0935705 -0.31027 30 34 19 
0.809947 0.0919192 -0.309905 37 42 27 
0.808213 0.0886461 -0.309242 49 63 33 
0.805886 0.0837897 -0.308351 28 41 15 
0.805547 0.0822214 -0.308222 42 55 28 
0.801739 0.0726778 -0.306765 22 41 10 
0.799711 0.0709721 -0.305989 68 99 39 
0.796839 0.0676842 -0.30489 86 132 44 
0.792236 0.0612623 -0.303129 95 145 55 
0.791638 0.0597095 -0.3029 94 145 51 
0.789822 0.05356 -0.302205 95 147 46 
0.788299 0.0459555 -0.301622 102 154 52 
0.782996 0.0337252 -0.299593 66 85 18 
0.782339 0.0292302 -0.299342 99 147 48 
0.78133 0.0277055 -0.298956 104 152 52 
0.780326 0.0261848 -0.298572 105 151 52 
0.776067 0.0216111 -0.296942 105 139 63 
0.774964 0.0186306 -0.29652 105 151 77 
0.77597 0.0142245 -0.296905 93 148 53 
0.776269 0.0127526 -0.297019 100 154 59 
0.778955 0.00834939 -0.298047 109 161 66 
0.798947 0.000961172 -0.305696 94 136 64 
0.799733 -0.00360387 -0.305997 104 143 74 
0.80204 -0.00819344 -0.30688 65 73 54 
0.806543 0.088463 -0.310138 52 51 42 
0.806313 0.0869032 -0.310049 42 40 30 
0.804234 0.0820874 -0.30925 42 38 32 
0.803475 0.0804809 -0.308958 37 34 30 
0.802661 0.0773441 -0.308645 31 31 25 
0.802473 0.0757989 -0.308573 35 39 30 
0.797813 0.0692853 -0.306781 85 116 63 
0.795205 0.066032 -0.305778 67 106 42 
0.793477 0.0628684 -0.305114 95 147 51 
0.788516 0.0519707 -0.303206 111 163 61 
0.787643 0.0504142 -0.30287 112 165 64 
0.786585 0.0413646 -0.302463 110 159 62 
0.78623 0.0398497 -0.302327 108 159 62 
0.781525 0.0336618 -0.300518 41 44 7 
0.780399 0.0306429 -0.300085 113 163 59 
0.779995 0.0276582 -0.299929 112 158 64 
0.778043 0.0246275 -0.299179 112 157 61 
0.774053 0.0171356 -0.297645 99 153 61 
0.776469 0.00980047 -0.298574 110 169 72 
0.793134 0.00548249 -0.304982 20 40 13 
0.801113 -0.00665934 -0.30805 51 62 37 
0.800633 -0.0142739 -0.307865 53 56 44 
0.800348 -0.0188383 -0.307756 37 38 31 
0.799825 -0.0203482 -0.307555 54 55 48 
0.808348 0.0978913 -0.31237 54 54 45 
0.808021 0.096314 -0.312244 50 50 41 
0.807658 0.0947336 -0.312104 43 44 35 
0.805049 0.086767 -0.311096 36 36 31 
0.804092 0.0851335 -0.310726 38 38 32 
0.803003 0.0804336 -0.310305 42 39 36 
0.802287 0.0773081 -0.310028 37 41 33 
0.801292 0.0726373 -0.309644 91 102 88 
0.800415 0.0710346 -0.309305 85 95 77 
0.793009 0.0628313 -0.306443 84 139 50 
0.791484 0.0612042 -0.305854 96 150 57 
0.790707 0.0596392 -0.305553 94 148 55 
0.789358 0.056533 -0.305032 101 158 58 
0.786491 0.0518373 -0.303924 119 174 72 
0.786284 0.0503272 -0.303844 119 174 72 
0.786175 0.0473279 -0.303802 119 172 70 
0.786186 0.0458323 -0.303806 114 166 64 
0.783934 0.0367494 -0.302936 76 99 49 
0.780918 0.0351219 -0.30177 54 61 35 
0.779267 0.0320815 -0.301133 59 73 31 
0.77641 0.0230982 -0.300028 121 166 74 
0.774114 0.0200834 -0.299141 39 79 16 
0.776233 0.0097975 -0.29996 118 170 84 
0.79506 0.0024696 -0.307235 79 105 65 
0.797653 -0.00511254 -0.308237 105 145 79 
0.797056 -0.00662562 -0.308007 86 113 61 
0.800347 -0.00817614 -0.309278 51 61 34 
0.798981 -0.015765 -0.308751 39 42 34 
0.79903 -0.020328 -0.308769 45 44 38 
0.807112 0.0977416 -0.313429 57 57 49 
0.80671 0.0961577 -0.313273 42 43 34 
0.806441 0.0945908 -0.313168 40 41 32 
0.80556 0.0914213 -0.312826 35 34 29 
0.804654 0.0897871 -0.312474 35 34 30 
0.80262 0.0819227 -0.311684 36 34 30 
0.801185 0.0756772 -0.311127 39 37 32 
0.800856 0.0725978 -0.310999 42 40 36 
0.800628 0.0710534 -0.310911 41 42 35 
0.787009 0.0563648 -0.305622 109 166 73 
0.786137 0.0548062 -0.305283 114 171 73 
0.785386 0.0517644 -0.304992 118 178 78 
0.785191 0.0502573 -0.304916 118 176 74 
0.785089 0.0472625 -0.304876 119 175 75 
0.785026 0.0427767 -0.304852 123 177 82 
0.785032 0.039789 -0.304854 96 124 54 
0.783884 0.0367471 -0.304408 13 18 3 
0.777156 0.0290365 -0.301796 124 157 75 
0.776964 0.0275507 -0.301721 125 159 79 
0.776534 0.0245798 -0.301554 103 137 59 
0.774013 0.0230269 -0.300575 87 114 52 
0.772817 0.0200498 -0.300111 16 31 11 
0.772709 0.0171058 -0.300069 102 162 61 
0.773877 0.0127133 -0.300522 106 161 74 
0.795214 0.00247008 -0.308808 24 37 19 
0.796588 -0.00510572 -0.309342 99 141 72 
0.805092 0.0944325 -0.314176 43 41 37 
0.804185 0.0912653 -0.313823 36 35 30 
0.798869 0.0678566 -0.311748 40 45 34 
0.796054 0.0630726 -0.31065 68 81 58 
0.794652 0.0614491 -0.310102 69 86 56 
0.794407 0.0584065 -0.310007 51 75 33 
0.782508 0.0337042 -0.305363 43 39 25 
0.777128 0.0275565 -0.303264 63 65 32 
0.776095 0.0245659 -0.302861 38 43 16 
0.794803 0.00700665 -0.310161 35 43 27 
0.795134 0.00549632 -0.310291 41 48 33 
0.79606 0.000957699 -0.310652 29 43 21 
0.796251 -0.0081343 -0.310726 64 79 40 
0.796974 -0.0126919 -0.311009 148 164 139 
0.796608 -0.0157182 -0.310866 41 45 38 
0.796181 -0.0187403 -0.310699 49 51 45 
0.795933 -0.0202492 -0.310602 47 45 40 
0.798429 0.0662997 -0.313096 52 56 48 
0.789675 0.0505443 -0.309663 73 92 49 
0.789329 0.0460156 -0.309528 80 94 59 
0.788692 0.0414754 -0.309278 40 43 28 
0.785777 0.0398267 -0.308134 94 91 83 
0.784463 0.0367743 -0.307619 31 29 18 
0.77716 0.0290367 -0.304755 66 72 47 
0.777742 0.0231379 -0.304984 40 46 28 
0.776355 0.0186641 -0.30444 57 82 44 
0.772177 0.0170941 -0.302802 119 174 89 
0.773642 0.0127095 -0.303376 107 151 76 
0.794928 -0.00206937 -0.311723 89 115 72 
0.795066 -0.00812219 -0.311777 77 93 53 
0.794844 -0.0111453 -0.31169 59 66 49 
0.795522 -0.0156968 -0.311956 48 51 42 
0.795346 -0.0187206 -0.311887 46 45 40 
0.802492 0.0971821 -0.316216 38 37 32 
0.802363 0.0941124 -0.316165 39 38 33 
0.801651 0.0909776 -0.315885 36 36 31 
0.801448 0.0894293 -0.315805 37 37 32 
0.801086 0.0863399 -0.315662 35 36 31 
0.799392 0.0846359 -0.314995 68 67 63 
0.800441 0.0817003 -0.315408 26 25 22 
0.799825 0.0785931 -0.315166 33 34 29 
0.797903 0.0677746 -0.314408 58 60 54 
0.795292 0.0539309 -0.313379 191 192 184 
0.784601 0.0367807 -0.309167 31 33 20 
0.778987 0.03207 -0.306954 75 102 54 
0.77678 0.0260659 -0.306085 83 99 66 
0.793343 0.00850361 -0.312611 39 46 32 
0.794741 0.0070061 -0.313162 43 48 33 
0.795393 0.00398437 -0.313419 46 50 39 
0.793756 -0.00206632 -0.312774 51 62 40 
0.79381 -0.00357718 -0.312795 74 92 62 
0.801325 0.0955158 -0.317282 35 34 30 
0.801074 0.0939613 -0.317182 38 37 33 
0.800349 0.0908299 -0.316895 39 37 33 
0.80018 0.0892879 -0.316828 38 36 33 
0.799962 0.0862186 -0.316742 34 34 29 
0.799173 0.0815709 -0.316429 45 44 40 
0.798833 0.0784956 -0.316295 32 33 28 
0.798761 0.0754482 -0.316266 34 35 30 
0.798203 0.0723573 -0.316045 43 44 39 
0.797862 0.070808 -0.31591 45 46 41 
0.796718 0.0631252 -0.315457 42 43 38 
0.795925 0.058518 -0.315143 39 42 34 
0.795641 0.056983 -0.315031 52 54 47 
0.792739 0.0537578 -0.313882 154 156 149 
0.791103 0.0431078 -0.313234 33 23 22 
0.788994 0.0414913 -0.312399 39 30 29 
0.786234 0.0383536 -0.311307 37 37 27 
0.779195 0.0320786 -0.308519 97 144 70 
0.779009 0.0291058 -0.308445 92 137 65 
0.778776 0.027615 -0.308353 78 111 54 
0.778474 0.0261227 -0.308234 65 76 46 
0.793386 -0.000555437 -0.314138 62 68 56 
0.793014 -0.00961044 -0.313991 50 57 41 
0.793072 -0.0111205 -0.314014 53 59 45 
0.79316 -0.0126312 -0.314049 50 52 42 
0.79346 0.0462564 -0.315677 26 21 17 
0.779662 0.0335816 -0.310188 98 149 72 
0.78339 0.0203241 -0.311671 41 43 30 
0.786403 0.0189056 -0.31287 49 52 42 
0.794328 0.00246733 -0.316023 48 54 41 
0.793422 -0.000555462 -0.315662 57 63 48 
0.792248 -0.00658565 -0.315195 50 55 44 
0.791864 -0.0095965 -0.315042 53 55 44 
0.792136 -0.0111073 -0.315151 53 56 46 
0.792297 -0.0126174 -0.315215 49 52 43 
0.794546 0.0569046 -0.317622 49 50 45 
0.793919 0.0508159 -0.317371 37 35 31 
0.793642 0.0477774 -0.31726 31 31 25 
0.79166 0.0431382 -0.316468 61 60 55 
0.787107 0.0383961 -0.314648 37 39 31 
0.784911 0.0367952 -0.31377 19 25 15 
0.779431 0.0335716 -0.311579 109 160 76 
0.77936 0.0320854 -0.311551 102 154 68 
0.779194 0.0291127 -0.311485 97 147 62 
0.789266 0.0174724 -0.315511 46 48 36 
0.789787 0.0144778 -0.315719 36 41 28 
0.793121 0.0115201 -0.317052 51 58 43 
0.793374 0.00850395 -0.317153 49 56 39 
0.793758 0.00397618 -0.317307 56 63 47 
0.791706 -0.00507443 -0.316486 59 65 54 
0.791341 -0.00808414 -0.31634 46 51 42 
0.791553 -0.0126056 -0.316425 50 52 43 
0.793499 0.0553195 -0.318713 37 35 31 
0.79324 0.0522821 -0.318609 29 27 24 
0.788319 0.0414559 -0.316633 49 54 44 
0.787397 0.0384103 -0.316262 37 46 34 
0.787182 0.0369017 -0.316176 32 41 24 
0.778594 0.0276085 -0.312726 102 144 68 
0.785737 0.0263664 -0.315596 34 38 29 
0.787715 0.0234346 -0.31639 44 52 36 
0.79304 0.00397259 -0.318529 54 58 45 
0.778891 0.0305837 -0.314328 99 154 64 
0.780075 0.027661 -0.314806 90 127 59 
0.790063 0.0220008 -0.318837 49 55 42 
0.790349 0.0190005 -0.318952 56 59 49 
0.792148 0.0175362 -0.319678 75 79 69 
0.790836 -0.00205872 -0.319149 60 64 55 
0.791248 0.0461274 -0.320821 67 67 62 
0.788197 0.0414494 -0.319584 56 60 50 
0.777816 0.0349823 -0.315374 120 168 89 
0.784801 0.0248414 -0.318207 108 127 107 
0.787763 0.023436 -0.319408 129 144 115 
0.789631 0.0219888 -0.320165 24 28 20 
0.791557 0.0130038 -0.320946 68 70 64 
0.791535 0.00396505 -0.320937 55 58 48 
0.791214 0.00245765 -0.320807 51 57 46 
0.790513 -0.000553426 -0.320523 49 56 45 
0.790317 0.0475772 -0.321947 61 62 57 
0.788881 0.0429867 -0.321362 59 60 51 
0.786272 0.0383554 -0.3203 47 55 44 
0.777604 0.0349728 -0.316769 116 169 84 
0.790978 0.0099836 -0.322217 59 62 55 
0.788403 -0.00505326 -0.321168 87 93 83 
0.780454 0.0365863 -0.319415 70 93 57 
0.777176 0.0349536 -0.318073 118 164 86 
0.777399 0.0305251 -0.318165 108 158 72 
0.789351 0.021981 -0.323056 31 35 31 
0.789592 0.0144742 -0.323155 67 70 61 
0.789567 0.00846314 -0.323145 55 58 50 
0.787927 0.0474333 -0.323973 59 60 55 
0.787177 0.044392 -0.323665 51 53 47 
0.783285 0.0397004 -0.322064 99 106 92 
0.778688 0.0365035 -0.320174 77 96 63 
0.785682 0.0263646 -0.32305 47 53 43 
0.788069 0.0234451 -0.324031 27 28 25 
0.789299 0.0189753 -0.324537 54 54 50 
0.78882 0.0114576 -0.32434 72 75 68 
0.788758 0.00245002 -0.324314 49 51 45 
0.788067 -0.000551713 -0.32403 61 63 57 
0.786764 0.0488606 -0.324992 48 49 44 
0.786672 0.0458606 -0.324954 52 53 48 
0.785856 0.0443175 -0.324617 59 60 55 
0.78332 0.041193 -0.32357 45 49 42 
0.776365 0.0349171 -0.320696 118 163 87 
0.77722 0.0305181 -0.321049 102 142 69 
0.788063 0.0189455 -0.325529 53 54 49 
0.788023 0.0099463 -0.325512 59 62 55 
0.787789 0.00694481 -0.325415 54 57 50 
0.787497 0.00394482 -0.325295 43 50 40 
0.787134 0.00094696 -0.325145 97 102 91 
0.784836 0.0427663 -0.325689 51 53 47 
0.778735 0.0365057 -0.323157 78 101 69 
0.784792 0.0278283 -0.325671 47 54 38 
0.786757 0.0114276 -0.326486 62 65 58 
0.780747 0.0380859 -0.325478 35 42 31 
0.778856 0.0365114 -0.32469 88 105 75 
0.7762 0.0349097 -0.323583 112 156 87 
0.776956 0.0319864 -0.323898 106 144 78 
0.784639 0.0263296 -0.327101 50 52 41 
0.785635 0.0233727 -0.327516 49 49 42 
0.785724 0.0188893 -0.327553 55 56 51 
0.785603 0.0173913 -0.327502 53 54 48 
0.785901 0.00991952 -0.327627 63 65 61 
0.784897 0.00691932 -0.327208 47 50 44 
0.783894 0.0471905 -0.328282 50 50 48 
0.782288 0.0426275 -0.327609 39 41 35 
0.781826 0.0411144 -0.327416 45 48 42 
0.784575 0.021848 -0.328567 68 69 64 
0.77705 0.0349479 -0.326895 89 101 80 
0.782462 0.0277457 -0.329172 40 40 30 
0.782813 0.0247785 -0.329319 40 40 33 
0.783891 0.0158615 -0.329773 64 65 60 
0.783703 0.0143663 -0.329694 60 61 56 
0.783142 0.0128655 -0.329458 56 57 52 
0.782872 0.00988129 -0.329344 55 56 51 
0.780162 0.0410269 -0.329689 94 97 91 
0.778931 0.0379973 -0.329169 73 79 69 
0.778732 0.0365056 -0.329084 60 66 56 
0.780488 0.0306464 -0.329827 36 36 28 
0.78292 0.0203119 -0.330854 47 48 41 
0.782534 0.0158341 -0.330691 57 58 53 
0.782339 0.0143412 -0.330608 55 56 51 
0.78142 0.0128373 -0.33022 59 60 55 
0.779499 0.0320911 -0.330892 52 54 48 
0.779685 0.0276472 -0.330971 58 59 50 
0.77943 0.0261548 -0.330863 72 71 64 
0.779602 0.0217095 -0.332419 36 37 31 
0.779136 0.0172481 -0.332221 44 47 43 
